1.775074999999999917e-02 1.842846370188966909e-01 1.595298300000000113e-01
5.708711999999999814e-02 1.841793470188967108e-01 1.588988500000000081e-01
5.935116000000000003e-02 1.833912570188966917e-01 1.541760299999999917e-01
9.696022999999999448e-02 1.817670870188967114e-01 1.444429000000000129e-01
9.428719999999999810e-03 1.833323670188967136e-01 1.538233300000000081e-01
6.644861999999999991e-02 1.830093370188967117e-01 1.518874600000000019e-01
3.279304999999999720e-02 1.837208370188966877e-01 1.561511899999999953e-01
4.779495000000000271e-02 1.816860870188967136e-01 1.439574399999999921e-01
8.449494000000000449e-02 1.827169770188967202e-01 1.501355000000000051e-01
8.422010000000000607e-02 1.824064370188966944e-01 1.482744099999999954e-01
8.539770000000000347e-03 1.845335770188967217e-01 1.610217399999999965e-01
2.462829000000000060e-02 1.835329070188966849e-01 1.550250400000000028e-01
1.217586000000000016e-02 1.840572170188967127e-01 1.581671199999999944e-01
4.085099999999999842e-02 1.823210870188967103e-01 1.477628900000000078e-01
1.229495000000000067e-02 1.816939570188966790e-01 1.440047899999999936e-01
4.176148999999999833e-02 1.846452770188967141e-01 1.616910799999999870e-01
2.269942999999999961e-02 1.841169170188967086e-01 1.585248300000000055e-01
1.264740000000000092e-03 1.827711870188967191e-01 1.504603300000000032e-01
4.675511999999999724e-02 1.850481470188967137e-01 1.641053600000000057e-01
1.797346000000000013e-02 1.835851170188966819e-01 1.553378900000000062e-01
3.945564000000000016e-02 1.841806270188967032e-01 1.589064400000000099e-01
2.573904999999999943e-02 1.830586970188967100e-01 1.521831600000000118e-01
9.623076999999999326e-02 1.826852370188967178e-01 1.499452599999999969e-01
6.033899999999999810e-04 1.825432670188967266e-01 1.490943700000000038e-01
3.836911999999999962e-02 1.827455870188967046e-01 1.503068399999999971e-01
5.455766000000000088e-02 1.825386770188967001e-01 1.490668199999999888e-01
7.782331000000000665e-02 1.839287470188967211e-01 1.573971500000000134e-01
9.814433999999999658e-02 1.830899570188966874e-01 1.523705099999999868e-01
9.023830000000000046e-03 1.854688370188967150e-01 1.666262599999999983e-01
1.102936899999999998e-01 1.819025970188967167e-01 1.452551199999999876e-01
7.946039999999999701e-03 1.817815470188967053e-01 1.445296100000000028e-01
3.955195999999999712e-02 1.820513170188967078e-01 1.461463000000000068e-01
8.936799999999999952e-03 1.842137470188967008e-01 1.591050599999999926e-01
5.474109999999999913e-03 1.851615170188967152e-01 1.647847899999999866e-01
4.438432999999999962e-02 1.832576870188967200e-01 1.533755400000000046e-01
7.101465999999999335e-02 1.832295470188967101e-01 1.532071200000000022e-01
8.870964000000000627e-02 1.826071570188966819e-01 1.494770900000000069e-01
4.320990000000000247e-02 1.843446370188966954e-01 1.598893700000000029e-01
5.977124000000000326e-02 1.797635970188967147e-01 1.378936500000000065e-01
1.065153300000000053e-01 1.761121570188967089e-01 1.272574099999999875e-01
8.980311000000000543e-02 1.786364470188966935e-01 1.346103800000000017e-01
3.638794000000000056e-02 1.797185370188967291e-01 1.377623699999999951e-01
1.141014600000000018e-01 1.744111070188967272e-01 1.223023300000000008e-01
6.947857000000000338e-02 1.799698270188966887e-01 1.384943899999999950e-01
1.470195900000000055e-01 1.745354370188966775e-01 1.226644999999999958e-01
7.954711000000000420e-02 1.781142770188967051e-01 1.330893499999999952e-01
1.423332399999999998e-01 1.759034270188967186e-01 1.266493599999999886e-01
1.389751100000000128e-01 1.784724170188967118e-01 1.341325200000000051e-01
4.599936000000000302e-02 1.798416570188967056e-01 1.381209300000000029e-01
1.173417000000000036e-02 1.809785470188967071e-01 1.414326899999999998e-01
1.270232299999999870e-01 1.743390370188966920e-01 1.220924399999999965e-01
3.494658999999999960e-02 1.808869970188967113e-01 1.411659600000000070e-01
1.281037899999999952e-01 1.814145570188966938e-01 1.427027299999999999e-01
1.555176199999999953e-01 1.763242370188967123e-01 1.278750899999999968e-01
1.317748099999999922e-01 1.766866570188966867e-01 1.289308200000000015e-01
1.530740600000000118e-01 1.735933270188966815e-01 1.199202800000000041e-01
1.511207999999999996e-01 1.741449670188967014e-01 1.215271099999999938e-01
1.436213100000000020e-01 1.802452370188967201e-01 1.392965800000000032e-01
4.690098000000000183e-02 1.802786170188966919e-01 1.393937799999999949e-01
7.648299000000000070e-02 1.808147870188966944e-01 1.409555799999999970e-01
1.162272200000000061e-01 1.791172170188967128e-01 1.360107799999999978e-01
1.514792299999999925e-01 1.795599870188966940e-01 1.373005200000000092e-01
9.721628999999999687e-02 1.812616470188966877e-01 1.422572300000000123e-01
9.561471000000000553e-02 1.811410670188967065e-01 1.419059900000000096e-01
1.437454099999999901e-01 1.748517570188967141e-01 1.235859700000000033e-01
1.481919600000000115e-01 1.750138870188966966e-01 1.240581899999999987e-01
1.032234300000000049e-01 1.768384970188967009e-01 1.293731200000000081e-01
1.521692299999999887e-01 1.807713670188966781e-01 1.408291600000000088e-01
1.286842199999999881e-01 1.788443470188966766e-01 1.352159699999999909e-01
1.034543700000000038e-01 1.756942370188966929e-01 1.260400299999999973e-01
1.007609399999999933e-01 1.793622270188967027e-01 1.367244599999999921e-01
9.597883999999999582e-02 1.767610470188967220e-01 1.291474699999999864e-01
1.445049899999999998e-01 1.733469170188967068e-01 1.192025300000000010e-01
3.124514999999999931e-02 1.810009070188967062e-01 1.414977600000000002e-01
5.980834000000000150e-02 1.789239770188967293e-01 1.354478899999999875e-01
3.484107000000000176e-02 1.797912870188966838e-01 1.379742300000000033e-01
1.523237799999999920e-01 1.722551470188967149e-01 1.160222900000000001e-01
8.748082999999999554e-02 1.808511770188966916e-01 1.410616000000000092e-01
9.109109999999999430e-02 1.798041570188966820e-01 1.380117200000000044e-01
9.917531999999999737e-02 1.811032170188967005e-01 1.417957699999999877e-01
7.477164000000000033e-02 1.809228470188967153e-01 1.412704100000000129e-01
3.999007000000000256e-02 1.809717570188967284e-01 1.414128199999999946e-01
5.283464000000000216e-02 1.812730270188966930e-01 1.422904100000000061e-01
1.097629799999999961e-01 1.813574270188966775e-01 1.425362500000000032e-01
6.293886999999999399e-02 1.785725470188966879e-01 1.344242400000000004e-01
1.508676999999999935e-01 1.800132270188967154e-01 1.386207600000000095e-01
8.484205000000000219e-02 1.803271070188967040e-01 1.395350200000000096e-01
1.067834899999999948e-01 1.760196870188966978e-01 1.269879899999999950e-01
1.164136699999999969e-01 1.759884470188967098e-01 1.268969899999999873e-01
1.422385899999999981e-01 1.801959970188967142e-01 1.391531699999999927e-01
1.177470699999999953e-01 1.743613970188966911e-01 1.221575200000000055e-01
4.054080000000000183e-02 1.808981170188966869e-01 1.411983500000000002e-01
1.007427600000000006e-01 1.730343870188967292e-01 1.182920999999999973e-01
3.934569000000000261e-02 1.730554570188966856e-01 1.183534599999999937e-01
4.960309999999999719e-02 1.735181970188967027e-01 1.197013900000000047e-01
1.566986000000000073e-02 1.755088970188967146e-01 1.255001699999999942e-01
7.555048000000000319e-02 1.750181470188967303e-01 1.240706099999999978e-01
8.622680000000000622e-02 1.736086470188967223e-01 1.199648499999999979e-01
1.101790099999999939e-01 1.742318670188967022e-01 1.217802199999999946e-01
5.938965000000000216e-02 1.720186570188966813e-01 1.153334099999999973e-01
9.738658999999999510e-02 1.720910170188967303e-01 1.155441600000000069e-01
4.330774999999999902e-02 1.763729870188966986e-01 1.280170800000000053e-01
5.977277000000000284e-02 1.717250170188966973e-01 1.144781200000000027e-01
8.731065999999999827e-02 1.741844270188966926e-01 1.216420599999999963e-01
8.511807999999999874e-02 1.754312970188967036e-01 1.252740499999999979e-01
1.930416000000000076e-02 1.777941470188967310e-01 1.321568200000000082e-01
3.348585999999999924e-02 1.781975770188967134e-01 1.333319799999999888e-01
1.192763099999999965e-01 1.723585270188967011e-01 1.163234300000000054e-01
1.661755999999999997e-02 1.768233070188967027e-01 1.293288200000000110e-01
5.779499999999999915e-02 1.734518570188967046e-01 1.195081800000000055e-01
8.713835999999999804e-02 1.742633770188967146e-01 1.218720499999999957e-01
4.314061999999999758e-02 1.756881070188966998e-01 1.260220599999999913e-01
1.101281999999999955e-02 1.796138170188967265e-01 1.374573099999999992e-01
3.413858000000000170e-02 1.767147970188966966e-01 1.290127600000000041e-01
9.650337000000000498e-02 1.748320270188967185e-01 1.235285099999999942e-01
2.179282000000000094e-02 1.776731170188967091e-01 1.318042600000000064e-01
2.629199000000000119e-02 1.731611670188967222e-01 1.186613799999999969e-01
1.390540000000000005e-03 1.747205370188967266e-01 1.232037200000000027e-01
5.493577000000000182e-02 1.751740670188967064e-01 1.245248199999999944e-01
5.128900000000000126e-02 1.718352870188967207e-01 1.147992899999999983e-01
6.798000999999999350e-02 1.745644970188967027e-01 1.227491799999999994e-01
1.671399000000000148e-02 1.777130770188967146e-01 1.319207500000000033e-01
1.845134999999999831e-02 1.732852270188967037e-01 1.190228599999999942e-01
1.081606100000000042e-01 1.736968270188967156e-01 1.202217899999999950e-01
5.024427000000000060e-02 1.752158270188967082e-01 1.246464199999999939e-01
1.225132699999999936e-01 1.723776570188966795e-01 1.163790999999999992e-01
1.111593399999999954e-01 1.722551770188966991e-01 1.160222699999999968e-01
4.109192999999999873e-02 1.755519670188966930e-01 1.256255500000000025e-01
1.004743000000000025e-01 1.746790570188966885e-01 1.230828999999999951e-01
1.195181000000000021e-02 1.724613770188966888e-01 1.166230300000000025e-01
1.638314000000000090e-02 1.792730570188967310e-01 1.364646700000000101e-01
8.117710000000000203e-02 1.724043670188967203e-01 1.164569700000000069e-01
9.999458999999999431e-02 1.726811670188966863e-01 1.172632499999999994e-01
7.946042999999999856e-02 1.747901870188967033e-01 1.234066000000000052e-01
9.132770000000000124e-03 1.722393470188967046e-01 1.159762099999999962e-01
5.656338000000000338e-02 1.743292070188967036e-01 1.220638200000000034e-01
7.676330000000000306e-03 1.720699170188966787e-01 1.154827900000000018e-01
9.670676999999999746e-02 1.736984370188967008e-01 1.202264100000000058e-01
3.888467999999999786e-02 1.749427770188967113e-01 1.238510599999999989e-01
1.034338999999999953e-01 1.737816470188967011e-01 1.204688500000000023e-01
1.172797399999999934e-01 1.730862070188967095e-01 1.184430800000000061e-01
3.464669000000000082e-02 1.766471370188967271e-01 1.288157099999999999e-01
2.269031999999999993e-02 1.744995270188967051e-01 1.225599200000000027e-01
7.742119999999999558e-02 1.759487570188967287e-01 1.267813899999999938e-01
4.916160000000000148e-03 1.747052170188966858e-01 1.231591199999999969e-01
4.525006000000000167e-02 1.778724970188966803e-01 1.323850000000000027e-01
1.005270300000000033e-01 1.632982670188967145e-01 9.867732999999999366e-02
1.266787500000000066e-01 1.614562670188967042e-01 9.527364000000000666e-02
1.265802400000000105e-01 1.643782370188967001e-01 1.006729799999999952e-01
1.253608800000000079e-01 1.675073370188966959e-01 1.064550400000000008e-01
1.187378500000000059e-01 1.701595970188967133e-01 1.113560200000000000e-01
1.411058900000000116e-01 1.651353370188967107e-01 1.020719499999999946e-01
6.290051000000000669e-02 1.685008870188967056e-01 1.082909900000000036e-01
2.253544000000000033e-02 1.713593770188966969e-01 1.135729999999999934e-01
1.171151299999999978e-01 1.648988570188967273e-01 1.016349899999999945e-01
8.246908999999999490e-02 1.706626870188966971e-01 1.122856099999999940e-01
1.283747100000000030e-01 1.603934570188966791e-01 9.330974999999999686e-02
1.118114399999999981e-01 1.688065370188966963e-01 1.088557799999999992e-01
7.209820000000000118e-02 1.709794570188967189e-01 1.128709799999999958e-01
4.767713999999999980e-02 1.685476770188967244e-01 1.083774200000000021e-01
1.515499700000000061e-01 1.650590770188967160e-01 1.019310300000000058e-01
1.501972099999999977e-01 1.692459170188966855e-01 1.096676399999999968e-01
1.087699599999999989e-01 1.660659470188967091e-01 1.037915999999999977e-01
6.080391999999999741e-02 1.690395570188967245e-01 1.092863300000000010e-01
1.521934299999999907e-01 1.618484070188966895e-01 9.599826000000000192e-02
1.272366600000000014e-01 1.617992970188967261e-01 9.590748999999999802e-02
9.869635000000000213e-02 1.707634770188967144e-01 1.124718600000000068e-01
1.411223100000000008e-01 1.714393370188966870e-01 1.137207400000000007e-01
1.415416999999999925e-01 1.614857770188967145e-01 9.532817999999999847e-02
7.247362000000000248e-02 1.651826970188967070e-01 1.021595099999999950e-01
1.291233699999999873e-01 1.607563370188966889e-01 9.398027999999999937e-02
6.257073000000000496e-02 1.671828770188967250e-01 1.058555099999999999e-01
5.313317000000000040e-02 1.702727570188967143e-01 1.115651000000000004e-01
5.491555000000000047e-02 1.690007870188967032e-01 1.092147200000000012e-01
1.550431800000000027e-01 1.571745670188967048e-01 8.736175999999999664e-02
1.243477300000000035e-01 1.660954170188966850e-01 1.038460400000000006e-01
1.124394499999999963e-01 1.683218070188967075e-01 1.079600399999999932e-01
9.060940000000000660e-02 1.676899970188966971e-01 1.067926000000000014e-01
1.522330000000000072e-01 1.693902770188966955e-01 1.099344399999999944e-01
8.633003999999999678e-02 1.679966270188967270e-01 1.073591700000000038e-01
5.750036000000000036e-02 1.702755270188966996e-01 1.115702400000000011e-01
2.059905999999999890e-02 1.702507270188967081e-01 1.115243999999999958e-01
1.036340500000000053e-01 1.666976970188966956e-01 1.049589799999999934e-01
8.656271999999999578e-02 1.696266070188967023e-01 1.103711099999999945e-01
1.191586099999999981e-01 1.685240070188966932e-01 1.083337300000000031e-01
1.312483999999999873e-01 1.600606570188967126e-01 9.269479999999999387e-02
1.553860900000000045e-01 1.577313670188967287e-01 8.839062000000000308e-02
8.513919000000000348e-02 1.671528370188967161e-01 1.057999899999999965e-01
1.075776100000000041e-01 1.695368470188967081e-01 1.102052399999999960e-01
9.885958000000000245e-02 1.697596470188967310e-01 1.106169699999999950e-01
1.543974999999999931e-01 1.615935970188966952e-01 9.552742999999999651e-02
1.569015699999999902e-01 1.600151770188967260e-01 9.261075000000000557e-02
1.192261099999999963e-01 1.683260070188967172e-01 1.079678300000000007e-01
3.318563000000000068e-02 1.699018670188967017e-01 1.108797299999999958e-01
1.127749799999999969e-01 1.610924170188967053e-01 9.460129000000000454e-02
6.775074000000000374e-02 1.675547470188967214e-01 1.065426800000000007e-01
1.525051900000000127e-01 1.696127770188967099e-01 1.103455700000000039e-01
4.912127000000000160e-02 1.695944170188967148e-01 1.103116600000000058e-01
9.155177999999999927e-02 1.695349670188966984e-01 1.102018099999999973e-01
7.790220000000000478e-02 1.668499270188967265e-01 1.052402800000000055e-01
1.072149800000000014e-01 1.575246870188967141e-01 8.800871999999999862e-02
6.308524000000000076e-02 1.587767170188967292e-01 9.032226000000000143e-02
5.798401999999999723e-02 1.620759170188967313e-01 9.641864999999999464e-02
6.271838000000000413e-02 1.585662470188967110e-01 8.993336999999999859e-02
8.911096000000000295e-02 1.587606470188966945e-01 9.029257999999999729e-02
9.704599999999999338e-02 1.603798370188966871e-01 9.328461000000000392e-02
1.492591000000000057e-02 1.596691770188967130e-01 9.197138000000000535e-02
1.038091000000000014e-02 1.693794270188966888e-01 1.099143699999999974e-01
5.889039999999999900e-03 1.620184670188967169e-01 9.631251999999999869e-02
3.739594000000000251e-02 1.575280870188967008e-01 8.801501999999999937e-02
5.706255999999999828e-02 1.606418070188966873e-01 9.376863000000000559e-02
6.051611999999999963e-02 1.622966070188966992e-01 9.682641999999999638e-02
8.713970999999999523e-02 1.582099670188967244e-01 8.927501999999999660e-02
2.066360999999999892e-02 1.681958870188967059e-01 1.077273599999999942e-01
1.392490700000000026e-01 1.570284170188966932e-01 8.709169999999999412e-02
8.281170999999999671e-02 1.569212270188967140e-01 8.689357999999999804e-02
2.130690000000000188e-03 1.601442870188967138e-01 9.284931999999999908e-02
1.069211399999999978e-01 1.598022470188967259e-01 9.221727000000000396e-02
8.087031000000000081e-02 1.577020170188966897e-01 8.833636000000000266e-02
8.760605999999999949e-02 1.582502870188967070e-01 8.934952999999999645e-02
5.336480999999999864e-02 1.662992670188966904e-01 1.042227299999999995e-01
8.363616000000000106e-02 1.572638870188967086e-01 8.752680000000000182e-02
5.889347999999999805e-02 1.639311470188967168e-01 9.984679999999999944e-02
7.348707000000000156e-02 1.625621770188966919e-01 9.731720000000000648e-02
2.523919000000000162e-02 1.617484270188966899e-01 9.581351000000000451e-02
4.510903000000000135e-02 1.638306870188966924e-01 9.966121999999999481e-02
3.681523999999999908e-02 1.627897770188966864e-01 9.773777000000000159e-02
9.346427000000000207e-02 1.613803370188967024e-01 9.513331999999999344e-02
4.455684000000000033e-02 1.599547370188967310e-01 9.249904999999999933e-02
7.552509999999999779e-02 1.600789270188966995e-01 9.272856000000000154e-02
4.411537000000000097e-02 1.614574970188967229e-01 9.527594999999999814e-02
2.040198999999999832e-02 1.616024270188967105e-01 9.554371999999999865e-02
6.917410999999999699e-02 1.649395970188967109e-01 1.017102800000000001e-01
1.922091999999999898e-02 1.680486070188966785e-01 1.074552200000000041e-01
1.510617000000000036e-02 1.615635870188967260e-01 9.547194000000000513e-02
2.763199999999999836e-04 1.592665470188966981e-01 9.122737999999999681e-02
6.599974999999999592e-02 1.629195370188967207e-01 9.797757999999999468e-02
2.759694000000000036e-02 1.568797670188967208e-01 8.681703999999999810e-02
1.147800499999999946e-01 1.588465670188967116e-01 9.045134999999999981e-02
1.121255399999999958e-01 1.593851570188967171e-01 9.144657000000000480e-02
1.155308099999999977e-01 1.588519970188966846e-01 9.046134000000000119e-02
7.504228999999999761e-02 1.638326470188967154e-01 9.966479000000000310e-02
9.408410000000000731e-03 1.663979470188967080e-01 1.044050599999999940e-01
9.562676000000000509e-02 1.599061370188967213e-01 9.240922000000000025e-02
5.724090000000000254e-03 1.591937370188967193e-01 9.109285000000000299e-02
7.011410999999999338e-02 1.634955570188967311e-01 9.904192000000000551e-02
4.065930000000000238e-02 1.629625670188967201e-01 9.805708000000000479e-02
9.750831999999999555e-02 1.582871770188967186e-01 8.941770999999999747e-02
4.391471999999999737e-02 1.620295470188967135e-01 9.633300000000000196e-02
2.770672999999999886e-02 1.646704270188967256e-01 1.012128999999999945e-01
1.058314900000000003e-01 1.602644470188966941e-01 9.307139000000000384e-02
4.927361999999999714e-02 1.619150170188967119e-01 9.612133000000000482e-02
4.261481000000000297e-02 1.642618370188966836e-01 1.004579099999999975e-01
1.071554900000000060e-01 1.582882570188967053e-01 8.941968999999999612e-02
3.259629999999999906e-03 1.629191170188967197e-01 9.797674000000000660e-02
3.641374000000000000e-02 1.527369470188967293e-01 8.145711999999999398e-02
4.812500000000000111e-02 1.513691070188967203e-01 7.969969999999999832e-02
3.149485999999999952e-02 1.567088170188967178e-01 8.656015999999999710e-02
1.283747899999999886e-01 1.559266870188967258e-01 8.555527999999999744e-02
4.402881000000000156e-02 1.564601470188967114e-01 8.624068000000000012e-02
1.191494599999999987e-01 1.457430270188966870e-01 7.247130999999999712e-02
1.385917799999999978e-01 1.534556870188967248e-01 8.238054999999999684e-02
9.424185999999999674e-02 1.500347670188967308e-01 7.798536999999999830e-02
1.355864099999999905e-01 1.451505870188967151e-01 7.171014000000000554e-02
1.141333600000000031e-01 1.501672970188966949e-01 7.815561999999999510e-02
1.282441900000000079e-01 1.503574970188967241e-01 7.840002000000000082e-02
1.099868999999999986e-01 1.511677970188967102e-01 7.944107999999999725e-02
1.241755400000000009e-01 1.475186770188967045e-01 7.475268999999999664e-02
1.177473500000000006e-01 1.509008270188966772e-01 7.909803999999999446e-02
1.461056900000000103e-01 1.409220870188966912e-01 6.627737000000000211e-02
9.893783999999999912e-02 1.501677770188967198e-01 7.815626000000000517e-02
9.617857999999999963e-02 1.456527870188967233e-01 7.235540000000000027e-02
8.954536999999999913e-02 1.478860570188966772e-01 7.522468999999999684e-02
1.138948399999999972e-01 1.449276670188966998e-01 7.142373000000000471e-02
1.352576900000000137e-01 1.469169970188967111e-01 7.397964999999999403e-02
1.080703400000000008e-01 1.447754670188967085e-01 7.122818000000000205e-02
1.089881500000000059e-01 1.565624070188966765e-01 8.637206000000000050e-02
9.440444000000000613e-02 1.505327670188967293e-01 7.862518999999999758e-02
5.864272000000000234e-02 1.558060470188967206e-01 8.540029000000000370e-02
8.566121999999999626e-02 1.486887770188967117e-01 7.625600999999999907e-02
1.057600499999999943e-01 1.544532870188967122e-01 8.366226000000000218e-02
1.348715100000000000e-01 1.442390570188967214e-01 7.053900999999999921e-02
6.036885000000000168e-02 1.567448570188966772e-01 8.660647000000000484e-02
3.188992000000000215e-02 1.534754470188967046e-01 8.240593999999999697e-02
6.936412000000000133e-02 1.535433970188966879e-01 8.249322000000000599e-02
9.455049000000000092e-02 1.517357970188967231e-01 8.017083999999999322e-02
7.651310000000000056e-02 1.506729570188967138e-01 7.880528000000000532e-02
1.218177500000000024e-01 1.436473870188966773e-01 6.977883000000000002e-02
1.472374499999999919e-01 1.485467070188967176e-01 7.607347999999999888e-02
1.189545500000000061e-01 1.555976070188966887e-01 8.513249999999999984e-02
1.038671399999999967e-01 1.486799870188967310e-01 7.624474000000000529e-02
1.488366100000000081e-01 1.455684470188967072e-01 7.224701000000000040e-02
1.435866699999999996e-01 1.494651570188966772e-01 7.725350999999999746e-02
9.730956000000000328e-02 1.470482470188966828e-01 7.414827000000000223e-02
1.510535500000000086e-01 1.543924970188966794e-01 8.358414000000000121e-02
5.997092999999999868e-02 1.507487770188967180e-01 7.890271000000000090e-02
1.531835800000000136e-01 1.418722970188966981e-01 6.749823000000000628e-02
1.551273000000000062e-02 1.565825470188966784e-01 8.639795000000000114e-02
1.453579999999999872e-01 1.520426370188966980e-01 8.056505999999999390e-02
4.245953000000000227e-02 1.555286770188967216e-01 8.504391000000000034e-02
1.469937699999999958e-01 1.497217270188966887e-01 7.758313999999999488e-02
1.569410400000000039e-01 1.448382870188967275e-01 7.130889999999999451e-02
6.958867999999999998e-02 1.553195870188966987e-01 8.477527999999999453e-02
1.020855199999999990e-01 1.457023770188967116e-01 7.241910999999999488e-02
1.288887900000000031e-01 1.497037570188967104e-01 7.756003999999999676e-02
1.687912000000000093e-02 1.550110770188967146e-01 8.437891000000000141e-02
6.592209999999999737e-02 1.546638170188966988e-01 8.393275999999999515e-02
8.347372999999999599e-02 1.491066970188967278e-01 7.679295999999999345e-02
9.656787999999999483e-02 1.560700670188966965e-01 8.573951999999999962e-02
5.808064000000000282e-02 1.494383970188967181e-01 7.721915000000000029e-02
6.343073999999999935e-02 1.456816970188967164e-01 7.239252000000000187e-02
7.970054000000000027e-02 1.402070070188967121e-01 6.535865000000000424e-02
8.823630000000000709e-03 1.549532570188967284e-01 8.430459999999999343e-02
1.870611000000000149e-02 1.519261470188967289e-01 8.041539000000000326e-02
5.961909999999999953e-03 1.484905370188966955e-01 7.600134000000000056e-02
5.536307000000000034e-02 1.390210570188967210e-01 6.383495000000000141e-02
2.683912000000000103e-02 1.520591870188967021e-01 8.058629999999999960e-02
8.142726000000000131e-02 1.469645970188966921e-01 7.404078999999999522e-02
1.259125000000000001e-02 1.451295770188967271e-01 7.168317000000000438e-02
2.742427000000000059e-02 1.415758270188967050e-01 6.711730000000000473e-02
1.135035800000000067e-01 1.404761170188967290e-01 6.570441000000000475e-02
6.115810000000000170e-03 1.491325970188966954e-01 7.682622000000000062e-02
2.097426000000000151e-02 1.443528970188966976e-01 7.068530000000000646e-02
7.048340000000000161e-03 1.384771270188966952e-01 6.313610000000000055e-02
4.310656000000000210e-02 1.506051270188967228e-01 7.871815999999999536e-02
2.027436999999999989e-02 1.440471270188967146e-01 7.029241999999999435e-02
1.112288800000000022e-01 1.383662370188967206e-01 6.299364999999999826e-02
8.224576999999999583e-02 1.378636170188967114e-01 6.234785999999999800e-02
1.124234000000000067e-01 1.382552270188966981e-01 6.285097000000000600e-02
1.286308000000000069e-02 1.386894470188966833e-01 6.340887000000000606e-02
6.366210999999999398e-02 1.469358370188967311e-01 7.400381999999999794e-02
8.799426999999999943e-02 1.441109070188967278e-01 7.037437000000000553e-02
6.391629000000000060e-02 1.417615570188967000e-01 6.735594000000000303e-02
1.298672000000000021e-02 1.531325770188967095e-01 8.196541999999999717e-02
4.420365999999999879e-02 1.497991270188966939e-01 7.768258000000000107e-02
2.169364000000000015e-02 1.379685870188966934e-01 6.248271999999999854e-02
2.756650000000000073e-02 1.444751770188967277e-01 7.084235999999999311e-02
1.750470000000000064e-03 1.391329870188967033e-01 6.397877999999999898e-02
1.209380399999999967e-01 1.400306670188967151e-01 6.513207999999999498e-02
1.155678900000000064e-01 1.400288170188966896e-01 6.512974000000000541e-02
2.003587999999999897e-02 1.508792770188966959e-01 7.907037000000000093e-02
1.426655999999999931e-02 1.388934370188967260e-01 6.367095999999999867e-02
2.776255999999999863e-02 1.442228070188967259e-01 7.051815999999999640e-02
3.724696000000000257e-02 1.443964970188967301e-01 7.074133999999999978e-02
1.684085000000000096e-02 1.480695770188967253e-01 7.546042999999999501e-02
1.054287899999999945e-01 1.430487770188966778e-01 6.900978000000000667e-02
1.371515500000000110e-01 1.398130470188966856e-01 6.485249999999999349e-02
2.471728999999999940e-02 1.518506270188966778e-01 8.031837000000000004e-02
6.601709000000000049e-02 1.468679170188966765e-01 7.391657999999999562e-02
1.188347700000000062e-01 1.394230870188967186e-01 6.435148000000000257e-02
8.545779999999999349e-03 1.432511670188967301e-01 6.926975999999999967e-02
1.192264999999999991e-02 1.485235270188967061e-01 7.604373000000000382e-02
4.968252000000000085e-02 1.468262470188966828e-01 7.386307000000000289e-02
3.008690000000000062e-03 1.441792370188966776e-01 7.046217000000000452e-02
1.826824000000000156e-02 1.496811370188966817e-01 7.753098999999999408e-02
1.362066999999999965e-02 1.497038170188966788e-01 7.756014999999999437e-02
3.659756000000000120e-02 1.500808770188967189e-01 7.804458999999999702e-02
7.212538999999999756e-02 1.385989370188966952e-01 6.329258000000000106e-02
1.346430000000000023e-03 1.426482070188966889e-01 6.849508999999999459e-02
1.205989000000000019e-02 1.483492370188966847e-01 7.581978000000000328e-02
2.209066000000000154e-02 1.495325670188967226e-01 7.734013000000000693e-02
2.024377999999999941e-02 1.540642570188966998e-01 8.316244000000000414e-02
1.303747000000000066e-02 1.498527070188966914e-01 7.775142000000000164e-02
4.044671999999999851e-02 1.499933470188967166e-01 7.793213000000000223e-02
1.122659099999999965e-01 1.249510770188966835e-01 5.045552999999999844e-02
1.470624399999999887e-01 1.173524070188967094e-01 4.346044999999999769e-02
1.070377500000000009e-01 1.329745770188967002e-01 5.784167999999999948e-02
1.142428699999999964e-01 1.229471670188966859e-01 4.861077999999999927e-02
1.206356400000000023e-01 1.361613970188966793e-01 6.077536000000000049e-02
6.083445999999999992e-02 1.361958570188966933e-01 6.080706999999999779e-02
1.326031199999999910e-01 1.289486770188967291e-01 5.413557000000000091e-02
9.710391999999999635e-02 1.319617770188967198e-01 5.690934000000000270e-02
1.436967299999999947e-01 1.175170970188966768e-01 4.361207000000000278e-02
9.801698999999999828e-02 1.310714670188967146e-01 5.608975000000000072e-02
1.526758699999999913e-01 1.159440170188967278e-01 4.216393999999999698e-02
9.214682000000000428e-02 1.366003870188967073e-01 6.117948000000000136e-02
8.359474999999999545e-02 1.351032970188967286e-01 5.980131000000000335e-02
7.580264000000000446e-02 1.292199070188966847e-01 5.438526999999999945e-02
1.321261800000000097e-01 1.300591370188967089e-01 5.515782999999999797e-02
6.032632999999999746e-02 1.374174470188966879e-01 6.193164999999999781e-02
8.711035999999999779e-02 1.279003170188967031e-01 5.317050999999999722e-02
1.060251499999999986e-01 1.377289770188966922e-01 6.221841000000000177e-02
4.239306000000000324e-02 1.339157070188967125e-01 5.870805999999999941e-02
6.050595999999999752e-02 1.331427570188967180e-01 5.799648999999999777e-02
9.916589000000000653e-02 1.277015070188967094e-01 5.298748000000000347e-02
3.386700000000000127e-02 1.330980170188967304e-01 5.795531999999999767e-02
2.997570000000000096e-02 1.349133670188967238e-01 5.962647000000000086e-02
9.485549999999999538e-02 1.345587770188966803e-01 5.930003999999999831e-02
3.786892000000000036e-02 1.337792170188967233e-01 5.858241000000000143e-02
1.377403700000000009e-01 1.239732970188966998e-01 4.955541000000000113e-02
1.419456900000000132e-01 1.245103070188967043e-01 5.004975999999999869e-02
1.320849500000000065e-01 1.201773770188966917e-01 4.606103000000000280e-02
1.566589200000000071e-01 1.226602370188967228e-01 4.834664999999999796e-02
1.077094299999999949e-01 1.236094370188967062e-01 4.922044999999999892e-02
1.496964100000000020e-01 1.255607170188967059e-01 5.101673999999999792e-02
1.458413299999999913e-01 1.269454170188967224e-01 5.229144000000000153e-02
5.279315999999999870e-02 1.351525970188967030e-01 5.984669000000000100e-02
1.083790699999999940e-01 1.338339870188967051e-01 5.863282000000000216e-02
1.089820999999999984e-01 1.288934470188967119e-01 5.408472999999999753e-02
1.089566099999999954e-01 1.378045870188966959e-01 6.228800999999999782e-02
1.537116900000000119e-01 1.160420370188967043e-01 4.225418000000000229e-02
6.586862000000000272e-02 1.292231870188966791e-01 5.438827000000000245e-02
8.852421000000000595e-02 1.374813770188966777e-01 6.199048000000000058e-02
3.068519000000000108e-02 1.365261770188966883e-01 6.111116999999999938e-02
1.127988800000000041e-01 1.316580570188967125e-01 5.662973999999999786e-02
1.452268800000000026e-01 1.359868770188967235e-01 6.061471000000000220e-02
8.165796000000000165e-02 1.345256070188967090e-01 5.926950999999999747e-02
4.562324000000000240e-02 1.355805270188967238e-01 6.024062000000000167e-02
1.316244900000000106e-01 1.307373170188966816e-01 5.578215000000000257e-02
1.338564799999999999e-01 1.304255570188966873e-01 5.549515000000000003e-02
9.888070000000000193e-02 1.305365370188967256e-01 5.559731999999999869e-02
1.425750399999999862e-01 1.197863370188966825e-01 4.570106000000000168e-02
1.119652500000000023e-01 1.308018370188966939e-01 5.584153000000000033e-02
9.363214999999999733e-02 1.290313470188966805e-01 5.421167999999999820e-02
1.530092500000000133e-01 1.169289770188967070e-01 4.307065000000000199e-02
5.967505000000000032e-02 1.325219070188967119e-01 5.742496999999999879e-02
9.765951000000000493e-02 1.321849670188967041e-01 5.711477999999999694e-02
1.108927100000000054e-01 1.270763670188966854e-01 5.241198999999999858e-02
1.222172100000000067e-01 1.209249370188967276e-01 4.674919000000000296e-02
4.131065999999999905e-02 1.217822270188966827e-01 4.753838999999999981e-02
1.105952500000000061e-01 1.187503770188966801e-01 4.474738000000000326e-02
1.211003300000000060e-01 1.196311570188967055e-01 4.555821000000000176e-02
3.767523999999999873e-02 1.271941770188966814e-01 5.252044000000000157e-02
1.302677000000000002e-02 1.303471770188966983e-01 5.542297999999999669e-02
2.816924000000000164e-02 1.330220270188967047e-01 5.788535000000000208e-02
1.022298100000000043e-01 1.176439970188967177e-01 4.372887999999999775e-02
1.894416999999999976e-02 1.262256670188967034e-01 5.162884999999999697e-02
3.868364999999999998e-02 1.233222370188967187e-01 4.895607999999999904e-02
4.822901999999999745e-02 1.272314970188966887e-01 5.255478000000000233e-02
5.678662999999999766e-02 1.289971870188967307e-01 5.418024999999999924e-02
9.018426000000000220e-02 1.153259670188966912e-01 4.159500000000000003e-02
3.993101000000000289e-02 1.175194870188966956e-01 4.361425000000000024e-02
8.907558999999999616e-02 1.209198370188966920e-01 4.674451000000000300e-02
7.386789999999999849e-03 1.296498070188967233e-01 5.478101999999999971e-02
7.645296999999999510e-02 1.254328370188966812e-01 5.089902999999999789e-02
4.479406999999999833e-02 1.199199670188966782e-01 4.582405999999999979e-02
2.510042999999999996e-02 1.293025170188967232e-01 5.446129000000000248e-02
9.550740000000000271e-03 1.175624870188967108e-01 4.365385000000000099e-02
2.916482000000000102e-02 1.201464970188966808e-01 4.603259999999999991e-02
6.450224999999999709e-02 1.239083270188967023e-01 4.949558999999999903e-02
5.677540000000000017e-03 1.211355470188967276e-01 4.694306000000000173e-02
4.558742999999999823e-02 1.282755870188966862e-01 5.351593999999999796e-02
2.687331000000000095e-02 1.222555770188967217e-01 4.797412000000000204e-02
6.940701999999999983e-02 1.197496470188966766e-01 4.566727999999999760e-02
2.973838999999999996e-02 1.202831070188967177e-01 4.615836999999999718e-02
7.751146999999999898e-02 1.207364370188966918e-01 4.657569000000000292e-02
3.749266999999999878e-02 1.181133270188967077e-01 4.416090000000000293e-02
1.637434999999999932e-02 1.217039970188967257e-01 4.746637000000000078e-02
4.051401999999999781e-02 1.304567270188967121e-01 5.552383999999999792e-02
1.179220999999999915e-02 1.228832170188967066e-01 4.855194000000000176e-02
6.133186000000000193e-02 1.224089070188967288e-01 4.811528000000000332e-02
1.017712999999999951e-02 1.318131870188967159e-01 5.677254000000000328e-02
1.023483500000000046e-01 1.173774470188966856e-01 4.348351000000000299e-02
8.435447999999999558e-02 1.224385970188966999e-01 4.814262999999999876e-02
1.014515799999999995e-01 1.167808270188966935e-01 4.293427999999999828e-02
1.020144000000000085e-02 1.286471670188967242e-01 5.385800000000000309e-02
4.119453000000000004e-02 1.196025170188966813e-01 4.553182000000000063e-02
2.765820999999999905e-02 1.181059970188966801e-01 4.415419999999999762e-02
1.526967000000000081e-02 1.157973870188966914e-01 4.202892999999999907e-02
1.220264000000000071e-02 1.234778270188967020e-01 4.909929999999999850e-02
1.036654000000000048e-01 1.206911970188966898e-01 4.653403999999999874e-02
8.961001000000000383e-02 1.154931070188967013e-01 4.174885999999999875e-02
5.734095000000000164e-02 1.233618970188967157e-01 4.899258000000000085e-02
2.246820000000000067e-02 1.329695170188966991e-01 5.783702000000000287e-02
5.599240000000000120e-03 1.156608870188967075e-01 4.190332000000000084e-02
8.808304999999999607e-02 1.154769770188966982e-01 4.173400000000000026e-02
4.005559000000000203e-02 1.184281570188966959e-01 4.445075999999999888e-02
8.522264999999999702e-02 1.213917570188967066e-01 4.717893000000000087e-02
2.244356999999999949e-02 1.207321470188967294e-01 4.657171999999999701e-02
3.589892000000000083e-02 1.306204670188966799e-01 5.567455999999999794e-02
8.630509999999999571e-02 1.156532870188967110e-01 4.189629999999999743e-02
5.971412000000000248e-02 1.199584470188966856e-01 4.585949000000000275e-02
9.706297999999999315e-02 1.200541070188966830e-01 4.594755999999999840e-02
3.155423999999999729e-02 1.314719770188966796e-01 5.645842999999999695e-02
1.226576800000000050e-01 9.680051701889669236e-02 2.943971999999999908e-02
4.718798999999999910e-02 1.118448770188967267e-01 3.926868000000000025e-02
1.287679700000000094e-01 1.127071270188966801e-01 3.983201000000000103e-02
1.361715900000000090e-01 1.071653470188966839e-01 3.621139000000000302e-02
5.789571999999999774e-02 1.081521670188966833e-01 3.685610999999999748e-02
7.992146999999999446e-02 1.030086770188967105e-01 3.349570000000000325e-02
7.198037999999999659e-02 1.084264370188967042e-01 3.703531000000000184e-02
1.295676699999999959e-01 1.037932170188967107e-01 3.400827000000000017e-02
1.043002299999999938e-01 1.075030070188967013e-01 3.643201000000000078e-02
8.765860000000000318e-03 1.144475470188967003e-01 4.096910000000000135e-02
7.957124999999999615e-02 1.071364470188966855e-01 3.619250999999999718e-02
1.152452499999999935e-01 9.915928701889670238e-02 3.098077999999999943e-02
1.460775699999999899e-01 1.055421070188967136e-01 3.515088000000000240e-02
8.364222999999999797e-02 1.032205970188966870e-01 3.363416999999999796e-02
1.160507900000000009e-01 1.117353270188967129e-01 3.919712000000000196e-02
1.306414800000000043e-01 9.766261701889672464e-02 3.000295999999999866e-02
4.572661000000000087e-02 1.150561370188967203e-01 4.136671000000000098e-02
9.422096000000000637e-02 1.010243170188966921e-01 3.219926000000000038e-02
7.162435999999999803e-02 1.082291470188966875e-01 3.690642000000000228e-02
4.392137000000000124e-02 1.089179970188967062e-01 3.735646000000000105e-02
8.733209000000000111e-02 1.125226470188966932e-01 3.971149999999999680e-02
1.510267600000000099e-01 1.081419770188967178e-01 3.684947000000000222e-02
1.285033499999999884e-01 1.029304970188967272e-01 3.344463999999999770e-02
1.543150100000000025e-01 1.145582970188966931e-01 4.104145000000000015e-02
5.948962000000000000e-02 1.149432770188967279e-01 4.129297999999999996e-02
4.011050000000000032e-02 1.127050370188967254e-01 3.983065000000000216e-02
3.096194000000000029e-02 1.121980970188967142e-01 3.949946000000000013e-02
5.209224999999999967e-02 1.071436270188966811e-01 3.619719999999999882e-02
5.338538000000000311e-02 1.089883570188966977e-01 3.740241999999999872e-02
8.980860999999999705e-02 1.111581170188967183e-01 3.882000000000000034e-02
7.283009000000000011e-02 1.135297270188966867e-01 4.036945000000000117e-02
9.485201000000000049e-02 1.104314770188967176e-01 3.834525999999999907e-02
3.589198999999999862e-02 1.128703770188966837e-01 3.993868999999999891e-02
1.343705400000000105e-01 1.025218470188967168e-01 3.317765999999999771e-02
5.934355999999999659e-02 1.130117070188966788e-01 4.003102000000000049e-02
1.368132400000000026e-01 9.480176701889669877e-02 2.813388000000000000e-02
1.484658899999999893e-01 1.105095270188967138e-01 3.839624999999999982e-02
1.068798200000000004e-01 1.092456770188967030e-01 3.757053999999999949e-02
7.132850999999999775e-02 1.060386170188967192e-01 3.547527000000000319e-02
1.469812199999999958e-01 9.142060701889670460e-02 2.592484000000000108e-02
7.040422999999999820e-02 1.095741270188966832e-01 3.778514000000000178e-02
1.164306400000000019e-01 9.750087701889670333e-02 2.989728999999999998e-02
1.348620700000000006e-01 1.040117270188967158e-01 3.415104000000000056e-02
1.230577100000000007e-01 1.062576570188967229e-01 3.561837999999999810e-02
1.122080699999999931e-01 1.008237770188967208e-01 3.206824999999999953e-02
9.335045999999999622e-02 1.050656870188966807e-01 3.483961000000000002e-02
9.161753999999999731e-02 1.104997870188966780e-01 3.838989999999999764e-02
1.224430799999999958e-01 9.892211701889669362e-02 3.082582999999999851e-02
6.129856000000000193e-02 1.139861170188967154e-01 4.066763999999999796e-02
1.062066599999999944e-01 1.007971870188967278e-01 3.205087000000000214e-02
5.070252000000000092e-02 1.071787670188967256e-01 3.622016000000000124e-02
1.406519699999999873e-01 1.050306370188966998e-01 3.481672999999999712e-02
1.064901399999999970e-01 1.082414270188967187e-01 3.691442999999999808e-02
1.277391300000000063e-01 1.137949070188967182e-01 4.054270000000000096e-02
2.426673000000000024e-02 1.102213970188967163e-01 3.820801000000000058e-02
3.972040999999999766e-02 1.064154070188966794e-01 3.572144000000000014e-02
3.731857999999999703e-02 1.010680670188967012e-01 3.222784000000000065e-02
8.139024999999999732e-02 9.522069701889668281e-02 2.840758000000000172e-02
2.745585999999999860e-02 9.979869701889670930e-02 3.139853000000000088e-02
8.156829000000000163e-02 9.026624701889668367e-02 2.517066000000000095e-02
9.486537999999999915e-02 9.652484701889668672e-02 2.925960000000000019e-02
1.023653000000000063e-02 8.985988701889668917e-02 2.490519000000000066e-02
3.794299000000000283e-02 1.032357970188966800e-01 3.364409000000000149e-02
3.936954000000000148e-02 1.024439770188966814e-01 3.312675999999999815e-02
2.373329999999999884e-02 1.088116270188966839e-01 3.728697999999999735e-02
5.844465000000000077e-02 1.021369870188967299e-01 3.292620999999999742e-02
3.875709000000000098e-02 1.083952670188966794e-01 3.701494999999999785e-02
2.483658000000000046e-02 1.095522770188966932e-01 3.777085000000000164e-02
3.655172999999999756e-02 1.037295570188966898e-01 3.396666999999999742e-02
4.312491999999999714e-02 1.024029970188967131e-01 3.309999999999999748e-02
3.141772000000000314e-02 9.485332701889670481e-02 2.816754000000000133e-02
6.092312999999999895e-02 1.011520770188967244e-01 3.228273999999999727e-02
8.158331000000000610e-02 9.035651701889668708e-02 2.522964999999999930e-02
3.099479000000000123e-02 1.097147270188967294e-01 3.787697999999999759e-02
5.561941000000000107e-02 1.022582770188967261e-01 3.300543999999999700e-02
3.441378999999999966e-02 9.486953701889672130e-02 2.817816000000000071e-02
5.605645000000000072e-02 1.029204270188966985e-01 3.343804999999999694e-02
2.697536999999999852e-02 9.586246701889672428e-02 2.882685999999999929e-02
9.145200000000000464e-04 1.072157770188967296e-01 3.624432999999999822e-02
1.125327899999999937e-01 9.430946701889669770e-02 2.781223999999999849e-02
2.394115999999999952e-02 1.019653270188967120e-01 3.281404999999999739e-02
1.355167899999999981e-01 9.078360701889670592e-02 2.550867999999999886e-02
6.659242999999999413e-02 1.008943770188966971e-01 3.211437000000000319e-02
2.457091999999999957e-02 9.365187701889671201e-02 2.738260000000000000e-02
5.213754999999999779e-02 9.432269701889672842e-02 2.782087000000000102e-02
8.738395999999999664e-02 9.907997701889670328e-02 3.092897000000000007e-02
2.337469000000000005e-02 9.381113701889670642e-02 2.748665999999999957e-02
7.043425999999999854e-02 9.700844701889671517e-02 2.957556999999999894e-02
8.961304999999999965e-02 9.471223701889669444e-02 2.807538000000000047e-02
1.468539999999999950e-03 1.048666370188967023e-01 3.470957999999999682e-02
2.464834999999999943e-02 1.109365370188967193e-01 3.867525000000000129e-02
4.843222999999999973e-02 9.067429701889667681e-02 2.543727000000000141e-02
2.976700000000000092e-03 9.174273701889668065e-02 2.613530000000000020e-02
4.320390999999999815e-02 9.762637701889670394e-02 2.997926999999999884e-02
2.244980000000000152e-03 1.109892870188967096e-01 3.870972000000000302e-02
5.124509999999999656e-03 9.203384701889671948e-02 2.632550000000000168e-02
1.559451000000000066e-02 1.104155970188966940e-01 3.833488000000000173e-02
3.646525999999999934e-02 1.068030770188966860e-01 3.597471000000000002e-02
1.868366999999999944e-02 1.041143070188966790e-01 3.421806000000000153e-02
7.553775999999999546e-02 9.939278701889669998e-02 3.113333000000000073e-02
3.931439999999999588e-03 1.126760370188967242e-01 3.981169999999999848e-02
9.488986000000000642e-02 9.676970701889670012e-02 2.941958000000000073e-02
1.088657100000000044e-01 9.246648701889670363e-02 2.660815000000000055e-02
9.634179999999999133e-03 1.014750170188967182e-01 3.249371000000000204e-02
1.497346999999999914e-02 1.063507970188967144e-01 3.567921999999999760e-02
3.017653000000000002e-02 1.011714170188967032e-01 3.229537999999999853e-02
6.260127999999999526e-02 9.134031701889672172e-02 2.587238999999999858e-02
8.505986000000000102e-02 9.161452701889671868e-02 2.605154999999999971e-02
9.020516000000000645e-02 7.594613701889668667e-02 1.867798000000000028e-02
1.462223800000000129e-01 7.497115701889672801e-02 1.825032000000000043e-02
1.391452999999999995e-01 8.655915701889671521e-02 2.333328999999999959e-02
8.557618000000000169e-02 8.128578701889671576e-02 2.102017999999999942e-02
3.376192000000000082e-02 8.497644701889672803e-02 2.263905000000000084e-02
6.515861000000000569e-02 8.508316701889667710e-02 2.268585999999999867e-02
1.303266600000000108e-01 7.317875701889670070e-02 1.746409999999999976e-02
4.981174000000000018e-02 8.610988701889671360e-02 2.313621999999999901e-02
7.752415999999999474e-02 8.567808701889673140e-02 2.294681999999999972e-02
6.479775999999999592e-02 8.762804701889670422e-02 2.380213999999999941e-02
8.583983000000000585e-02 8.573691701889668559e-02 2.297261999999999915e-02
9.155900999999999623e-02 7.823450701889672620e-02 1.968175999999999953e-02
7.529956000000000149e-02 8.287693701889670139e-02 2.171812000000000048e-02
1.444379500000000094e-01 6.825650701889668381e-02 1.530501000000000084e-02
1.540440499999999879e-01 6.732384701889670975e-02 1.489591000000000005e-02
1.180660999999999933e-01 8.788321701889673099e-02 2.391406999999999908e-02
7.222754000000000674e-02 8.344657701889668378e-02 2.196798999999999974e-02
1.250733400000000051e-01 7.100726701889670256e-02 1.651160000000000128e-02
1.483445499999999917e-01 6.938005701889671251e-02 1.579784000000000049e-02
1.200933200000000034e-01 7.665429701889669989e-02 1.898860999999999952e-02
1.522221900000000072e-01 8.757836701889670783e-02 2.378036000000000039e-02
8.918384999999999507e-02 8.199722701889672338e-02 2.133223999999999884e-02
1.391744599999999998e-01 7.859988701889669693e-02 1.984203000000000008e-02
8.815584999999999394e-02 8.011986701889672879e-02 2.050876000000000088e-02
1.521653699999999942e-01 8.231754701889670844e-02 2.147274999999999878e-02
1.382866799999999952e-01 8.009640701889669812e-02 2.049845999999999960e-02
1.436211900000000097e-01 8.241043701889672057e-02 2.151348999999999970e-02
1.490692799999999985e-01 7.662285701889670619e-02 1.897483000000000156e-02
4.892567999999999917e-02 8.498705701889669450e-02 2.264371000000000092e-02
1.865701000000000165e-02 8.886567701889669380e-02 2.434503000000000014e-02
1.045975499999999975e-01 7.608739701889671858e-02 1.873995999999999995e-02
7.055978000000000250e-02 7.949982701889668490e-02 2.023677000000000115e-02
5.424613999999999825e-02 8.655567701889671506e-02 2.333177000000000167e-02
1.495455800000000113e-01 8.545188701889672167e-02 2.284759999999999916e-02
6.285854000000000441e-02 8.524556701889668409e-02 2.275709000000000065e-02
5.563785999999999732e-02 8.829579701889672672e-02 2.409504999999999980e-02
2.232535999999999896e-02 8.666605701889668056e-02 2.338018000000000041e-02
8.449210999999999527e-02 7.632843701889668875e-02 1.884568000000000007e-02
1.254358899999999943e-01 8.287398701889669983e-02 2.171682999999999947e-02
1.330741199999999902e-01 7.425801701889672701e-02 1.793751000000000026e-02
1.409299199999999863e-01 8.893982701889668885e-02 2.437755000000000130e-02
1.041249900000000006e-01 8.631486701889667934e-02 2.322613000000000108e-02
1.332182299999999930e-01 8.523209701889672418e-02 2.275119000000000100e-02
1.364609599999999923e-01 7.292408701889668832e-02 1.735240000000000046e-02
1.513491100000000089e-01 6.814621701889672645e-02 1.525662000000000025e-02
1.277169300000000063e-01 6.947426701889669598e-02 1.583916000000000143e-02
1.476397799999999982e-01 8.001534701889667645e-02 2.046291000000000082e-02
1.266537799999999936e-01 6.751976701889672583e-02 1.498183999999999974e-02
1.059126400000000023e-01 7.404662701889669352e-02 1.784478999999999926e-02
8.336414000000000324e-02 7.765339701889673041e-02 1.942686000000000066e-02
1.231996900000000006e-01 8.046380701889671583e-02 2.065962000000000007e-02
1.412542900000000046e-01 8.378012701889669955e-02 2.211429999999999993e-02
1.519576599999999944e-01 7.370795701889670815e-02 1.769623000000000029e-02
1.231774199999999958e-01 7.973874701889671623e-02 2.034158000000000147e-02
2.259359999999999841e-02 7.972557701889670945e-02 2.033580000000000110e-02
1.064032899999999976e-01 6.961907701889669120e-02 1.590269000000000058e-02
1.415753999999999971e-02 8.643506701889669408e-02 2.327885000000000024e-02
4.286439000000000221e-02 7.846452701889672365e-02 1.978264999999999885e-02
